# .PCD v0.7 - Point Cloud Data file format
VERSION 0.7
FIELDS x y z intensity
SIZE 4 4 4 4
TYPE F F F F
COUNT 1 1 1 1
WIDTH 1508
HEIGHT 1
VIEWPOINT 0 0 0 1 0 0 0
POINTS 1508
DATA ascii
12.760024 -5.9611893 -0.58632183 9
5.8038044 -3.1426435 -0.52696526 6
13.599479 -6.3531685 -0.41565472 10
5.87991 -3.183845 -0.44055575 4
20.273777 -10.220626 0.99368018 13
6.3191257 -2.9563301 -1.2662961 3
12.029655 -5.1973195 -0.2030156 101
5.9494891 -3.2241995 -0.35157052 4
12.043952 -5.2059855 -0.020555699 100
12.892878 -6.9892211 -0.55944628 3
6.7526278 -3.1603725 -0.72618663 1
12.052223 -5.2095585 0.16226695 101
12.993939 -7.0469365 -0.35780311 37
43.999523 -22.19865 10.019235 24
nan nan nan 0
12.917978 -7.0057445 -0.14840136 33
7.5683002 -3.2478549 -1.7040696 9
12.833626 -6.9108043 0.053291764 32
6.9310007 -2.9747078 -0.85525131 3
12.756894 -6.8694887 0.25479701 90
12.918316 -6.4736295 -0.57638747 17
12.707324 -6.8456588 0.45498487 95
13.728651 -6.8795919 -0.39849004 14
36.342987 -16.880518 6.3410707 10
5.8553901 -2.936517 -1.0597649 3
14.567741 -6.7712555 -0.22101848 11
15.580316 -7.2417064 0.0029923669 11
16.757607 -7.7886872 0.26075134 13
12.030622 -5.1678677 -0.56782824 100
41.072453 -22.143593 12.493196 13
18.278713 -8.4992847 0.56557453 11
12.036737 -5.1704926 -0.38545948 101
nan nan nan 0
14.163625 -9.407073 -0.32282168 10
5.2035079 -3.237004 -0.46769083 3
15.290431 -10.155721 -0.092728019 10
5.4494376 -3.3914015 -0.40043232 3
4.7038383 -3.3271441 -0.58058041 3
16.566584 -11.007763 0.17673057 11
nan nan nan 0
23.344288 -13.596991 1.6548507 10
4.8639307 -3.441812 -0.51607436 3
13.077978 -8.1447639 -0.53407371 10
30.204451 -17.592905 3.0918128 25
5.129045 -3.6310065 -0.45774764 3
4.7252612 -2.9427552 -1.967171 10
13.135231 -7.6534758 -0.34152198 35
5.4758134 -3.8768048 -0.39529932 4
nan nan nan 0
nan nan nan 0
5.9069309 -4.1839409 -0.32581106 3
nan nan nan 0
13.014751 -7.5893579 0.081319727 69
13.348357 -9.4640684 -0.51024741 17
nan nan nan 0
14.376338 -10.193267 -0.30392072 10
4.4231176 -2.5798998 -2.3708889 22
15.51428 -11.004537 -0.062959194 10
5.3433433 -3.1167746 -0.82601875 1
16.846807 -11.950114 0.21952684 11
nan nan nan 0
18.431984 -13.084652 0.55549526 12
13.159793 -8.7666349 -0.52060324 10
4.4421139 -2.9570625 -1.5238414 6
13.993105 -8.7385693 -0.34194618 10
nan nan nan 0
15.09835 -9.4289351 -0.12092408 12
16.328087 -10.197062 0.13749848 11
5.791626 -3.3837318 -0.33679736 3
39.820557 -28.294399 5.6133595 32
17.781406 -11.109159 0.44208258 12
6.3516846 -3.7110035 -0.26586097 4
5.7815623 -3.1541302 -0.96135509 3
14.605557 -7.4148312 -0.19683664 10
6.7690835 -3.1896932 -0.51943338 1
5.7656465 -3.1454492 -0.70841664 3
15.728757 -7.9883628 0.033799153 10
12.049566 -5.678195 -0.74038833 4
5.7513738 -3.1389666 -0.6148026 3
16.992775 -8.6301908 0.3021518 11
12.784328 -6.026988 -0.58840692 17
nan nan nan 0
13.604347 -6.413384 -0.41648713 14
5.8205905 -3.1780546 -0.43692026 4
20.30477 -10.325291 0.99696475 13
6.2598305 -2.9552896 -1.2564243 3
12.020606 -5.2432742 -0.20317094 101
5.889998 -3.2186134 -0.34870163 4
12.025705 -5.2479949 -0.020555699 100
12.868402 -7.034183 -0.55944628 3
nan nan nan 0
12.043131 -5.2555933 0.16239087 101
12.973647 -7.0946493 -0.35792437 68
49.672787 -25.278603 11.332073 13
nan nan nan 0
12.902218 -7.0555916 -0.1485026 54
7.56141 -3.2761974 -1.7050871 8
12.822606 -6.9627171 0.053346738 34
6.9114566 -2.9949377 -0.85411924 3
12.763591 -6.9306746 0.25541395 64
12.909016 -6.5254436 -0.57698685 9
12.67896 -6.887589 0.45482695 95
13.722397 -6.9364896 -0.39901009 12
36.350922 -17.038713 6.3528037 29
5.8142748 -2.9413514 -1.0541449 3
14.571177 -6.8348002 -0.22143213 14
15.582103 -7.3087831 0.0029976028 10
16.766529 -7.8641133 0.26131681 10
12.017095 -5.2118168 -0.56804544 97
40.948231 -22.261454 12.47896 38
18.289656 -8.58214 0.56683886 10
12.023203 -5.2144642 -0.38560694 99
nan nan nan 0
14.151473 -9.4703627 -0.32329723 20
5.1795077 -3.2472005 -0.46654266 4
15.308901 -10.245193 -0.093057029 10
5.441793 -3.4130552 -0.40074536 3
4.6719499 -3.3290963 -0.57805842 3
16.55714 -11.085 0.17704211 10
nan nan nan 0
23.361238 -13.716298 1.6594424 9
4.8802667 -3.479027 -0.51911265 3
13.079093 -8.2089634 -0.53528905 10
30.288881 -17.783974 3.1068063 33
5.1406884 -3.6662753 -0.45993957 3
4.6790566 -2.9366822 -1.9520904 30
13.061023 -7.6714296 -0.34028378 49
5.4744334 -3.9045968 -0.39618629 3
nan nan nan 0
13.015092 -7.6475058 -0.12879536 98
5.9329343 -4.2335677 -0.32807049 4
nan nan nan 0
12.945078 -7.6094022 0.081049204 99
13.335569 -9.5251322 -0.51102829 12
nan nan nan 0
14.373207 -10.266639 -0.30461183 9
4.4375219 -2.6091065 -2.3835676 13
15.520515 -11.090611 -0.063141584 10
5.3965044 -3.1730888 -0.83600283 1
16.8538 -12.04374 0.22016563 13
nan nan nan 0
18.426853 -13.177996 0.55672562 12
13.187193 -8.8515196 -0.52291185 17
6.0913682 -4.0869169 -2.098563 3
13.996359 -8.8086653 -0.34277689 10
nan nan nan 0
15.086501 -9.4948988 -0.12109424 12
16.338936 -10.283294 0.13789205 12
5.766871 -3.3963246 -0.33604109 3
39.624619 -28.363831 5.5996504 17
17.7679 -11.187143 0.44271612 12
6.3386917 -3.7331526 -0.26586097 4
5.792191 -3.1862125 -0.96498561 3
14.579585 -7.4657688 -0.19683664 14
nan nan nan 0
5.7938328 -3.1871152 -0.71326882 3
15.75418 -8.070569 0.033914343 10
6.6550283 -3.1658535 -0.40873 3
5.7883558 -3.1854196 -0.61996895 3
16.989246 -8.7031279 0.30262825 11
12.767724 -6.0737219 -0.58861542 8
5.7293291 -3.1542447 -0.52216369 1
13.595419 -6.4672713 -0.41690335 10
5.7744966 -3.1791065 -0.43427625 3
20.33083 -10.428017 1.0000303 13
6.1872959 -2.9475303 -1.24386 3
12.006806 -5.2872157 -0.20324861 96
5.8699803 -3.2343349 -0.34818 3
12.016465 -5.2939692 -0.020571407 98
12.804387 -7.0573545 -0.55772662 3
nan nan nan 0
12.024713 -5.2975993 0.16239087 100
13.710454 -7.5598254 -0.37902871 12
nan nan nan 0
nan nan nan 0
14.738317 -8.1265335 -0.17001371 9
nan nan nan 0
12.815766 -7.0170383 0.053420044 28
6.8599892 -3.0011446 -0.84902513 3
12.774402 -6.9943914 0.25611901 34
12.908415 -6.5818095 -0.57798582 12
12.65484 -6.9318051 0.45482695 35
nan nan nan 0
36.309082 -17.173941 6.3559318 34
5.8171611 -2.9683549 -1.0565534 3
14.560788 -6.8920355 -0.22163893 11
15.592654 -7.3802371 0.0030045842 13
16.770613 -7.9375591 0.26181161 10
12.735636 -5.5760956 -0.60301882 39
40.616165 -22.264961 12.401314 38
18.286694 -8.658761 0.56768173 11
13.534238 -5.9254942 -0.43485847 11
nan nan nan 0
14.14734 -9.5392694 -0.32396305 12
5.1681414 -3.2652605 -0.46654266 4
15.306207 -10.320935 -0.093259484 9
5.4129758 -3.4213607 -0.39949304 4
4.6441441 -3.3337703 -0.57604074 3
16.55979 -11.170691 0.17748715 10
nan nan nan 0
12.846912 -7.6030736 0.91344333 3
nan nan nan 0
13.071471 -8.2679253 -0.53615719 10
30.359489 -17.968235 3.1204774 34
5.1238112 -3.6812851 -0.45957425 3
4.6568351 -2.9454396 -1.9470636 6
13.012658 -7.7042408 -0.33972093 98
5.4769773 -3.9353411 -0.39736894 4
6.8552847 -4.3385291 -1.0131657 3
12.971111 -7.6826982 -0.12862432 85
5.9829884 -4.3009329 -0.33168557 4
nan nan nan 0
12.879725 -7.6316023 0.080805726 97
13.326576 -9.5891447 -0.51196539 10
nan nan nan 0
14.385972 -10.3518 -0.30564854 17
4.4790621 -2.6546211 -2.4110379 13
15.514167 -11.168096 -0.063274242 11
5.3768702 -3.1868532 -0.83467168 1
16.872513 -12.146324 0.22096409 12
nan nan nan 0
18.437511 -13.283153 0.55844808 14
13.181049 -8.9142981 -0.52390128 11
nan nan nan 0
14.003516 -8.881568 -0.34371147 10
nan nan nan 0
15.082819 -9.5662498 -0.12133248 13
16.34516 -10.367047 0.13824983 11
5.7979178 -3.4419281 -0.33856201 3
nan nan nan 0
17.787832 -11.286596 0.44419429 17
6.3342147 -3.7603581 -0.26622394 4
5.781034 -3.2064116 -0.96498561 3
14.553436 -7.5166154 -0.19683664 9
nan nan nan 0
5.7913671 -3.2121415 -0.71434712 3
15.712585 -8.1186275 0.033885546 10
6.5989227 -3.1674778 -0.40594763 3
5.803319 -3.220094 -0.622787 3
17.007618 -8.7876158 0.30350173 12
12.791487 -6.1398616 -0.59070051 14
5.7269988 -3.1790617 -0.52296394 3
13.595292 -6.5254984 -0.41759703 14
nan nan nan 0
20.343111 -10.524165 1.002439 12
6.1281943 -2.9456887 -1.2339882 3
14.37327 -6.3884683 -0.24378958 10
5.8411942 -3.2451072 -0.34713677 3
15.452184 -6.870934 -0.026509546 10
6.2941375 -3.4981322 -0.27399111 3
6.6339393 -3.1899691 -0.71693271 3
16.574942 -7.3698788 0.22434847 10
13.714563 -7.6246386 -0.37987772 13
44.643585 -23.113199 10.220596 33
nan nan nan 0
14.740449 -8.1949358 -0.17036802 12
6.8530517 -3.0266514 -1.5494317 4
15.916583 -8.7870388 0.066504754 10
6.7949266 -3.0010152 -0.84223294 3
nan nan nan 0
12.898691 -6.6336813 -0.57858515 10
18.917032 -10.447683 0.68176663 22
13.029087 -6.7007241 -0.38015822 34
36.208801 -17.281439 6.3488927 25
5.7453241 -2.9570396 -1.0453135 5
14.554688 -6.9514365 -0.22191469 20
15.593868 -7.4475451 0.0030098201 12
16.792433 -8.0197439 0.2625891 9
12.743509 -5.6326265 -0.60432214 14
40.567791 -22.422956 12.410374 37
18.283415 -8.735465 0.5685246 11
13.53633 -5.9827976 -0.43559575 10
nan nan nan 0
14.155304 -9.6166945 -0.32491422 10
5.1525073 -3.2806017 -0.46615994 3
15.299034 -10.393972 -0.093436636 9
5.4346662 -3.4616904 -0.40199772 3
4.6244206 -3.3441255 -0.57503188 3
16.545504 -11.245296 0.17775419 10
nan nan nan 0
12.81601 -7.6453142 0.9131372 39
nan nan nan 0
13.059385 -8.3242493 -0.5368517 11
30.407789 -18.140444 3.131943 35
5.1068921 -3.6962221 -0.45920891 4
4.6306381 -2.9515438 -1.9403611 35
12.801115 -7.6394587 -0.33488065 78
5.4672489 -3.9573643 -0.39766461 4
nan nan nan 0
12.806844 -7.6459093 -0.12725598 85
5.9962468 -4.3423133 -0.33326721 5
nan nan nan 0
12.78862 -7.6380558 0.080399945 93
13.337526 -9.6678782 -0.51368344 14
nan nan nan 0
14.374031 -10.419561 -0.30616686 12
4.3608499 -2.6051567 -2.3518713 16
15.511513 -11.248608 -0.06342347 10
5.3572054 -3.2005188 -0.83334041 1
16.874527 -12.237443 0.22154965 12
nan nan nan 0
18.467884 -13.403225 0.56078571 14
13.211791 -9.0024738 -0.52637488 17
5.4432688 -3.7071207 -1.8830425 3
14.018759 -8.9600143 -0.3448537 17
nan nan nan 0
15.074611 -9.6350012 -0.12153669 12
16.338362 -10.442892 0.13850029 12
5.7687287 -3.4518881 -0.33755365 3
39.650677 -28.80327 5.6316385 24
17.78623 -11.372859 0.44514456 14
nan nan nan 0
5.7827597 -3.2338142 -0.96716386 3
12.939621 -6.7406244 -0.17528035 34
nan nan nan 0
5.7887964 -3.2371893 -0.71542537 3
15.755098 -8.2103891 0.034039132 9
6.5204182 -3.1578777 -0.40177408 3
nan nan nan 0
16.990143 -8.8538609 0.30373996 11
12.765479 -6.1822987 -0.59049201 9
nan nan nan 0
13.599423 -6.5859814 -0.41842946 10
nan nan nan 0
20.372683 -10.629768 1.0057236 11
6.0824618 -2.9499047 -1.2268085 3
14.405623 -6.4631467 -0.24472158 10
5.7949791 -3.2459586 -0.34505031 4
15.446354 -6.9330158 -0.026540965 10
6.2906055 -3.5249655 -0.27437323 3
6.654109 -3.2283001 -0.72034204 3
16.558241 -7.4317842 0.22447239 10
13.709666 -7.6846838 -0.38048416 11
44.493137 -23.232609 10.204647 11
nan nan nan 0
14.742284 -8.2634506 -0.17072231 11
6.8916388 -3.0724568 -1.5606226 11
15.933869 -8.8692913 0.06670633 10
6.7435646 -3.0065303 -0.83713883 4
17.311852 -9.6362658 0.34866029 13
12.919808 -6.7016649 -0.58058304 8
18.876083 -10.511223 0.68160874 20
13.027802 -6.7576675 -0.38080826 72
37.198349 -17.913326 6.5334854 33
5.6035461 -2.9088962 -1.0212278 1
14.530334 -7.0021996 -0.22191469 12
15.59931 -7.5171218 0.0030159287 10
16.809378 -8.100009 0.26329595 17
12.728333 -5.6791091 -0.60453939 10
38.426296 -21.414776 11.77756 39
18.279827 -8.812252 0.56936747 12
13.524492 -6.0340819 -0.43589067 9
nan nan nan 0
14.179396 -9.7055874 -0.32624584 12
5.1410246 -3.2985678 -0.46615994 4
15.291538 -10.467087 -0.093613796 10
5.4225492 -3.4806397 -0.40199772 4
4.6086998 -3.3573155 -0.57452744 3
16.568024 -11.345363 0.17842178 11
nan nan nan 0
12.737921 -7.6591415 0.90946382 31
nan nan nan 0
13.059678 -8.3886909 -0.5380671 10
30.429647 -18.29781 3.140763 41
5.1140971 -3.7287271 -0.46103552 4
4.560864 -2.9294837 -1.9152268 4
12.74867 -7.6686349 -0.33420524 73
5.4453392 -3.9705386 -0.39707327 4
nan nan nan 0
12.750089 -7.6725197 -0.12695664 92
5.9810529 -4.3632178 -0.33326721 5
nan nan nan 0
12.753312 -7.6774921 0.080345839 95
13.335978 -9.7379589 -0.51493287 11
nan nan nan 0
14.386012 -10.505061 -0.30720353 10
4.37502 -2.6343908 -2.3645499 16
15.512522 -11.332186 -0.063589282 10
5.3544908 -3.224313 -0.83467168 1
16.876112 -12.328721 0.22213519 12
5.8198447 -3.9936285 -0.3299337 3
18.477472 -13.508919 0.56250817 13
13.200882 -9.0626831 -0.52719939 10
nan nan nan 0
14.00841 -9.0224295 -0.34537292 14
nan nan nan 0
15.082918 -9.7146378 -0.12187703 14
16.331232 -10.518813 0.13875073 12
5.7651963 -3.4771624 -0.33805785 3
39.678162 -29.035381 5.6499176 13
17.780035 -11.456536 0.44598919 14
12.699909 -7.6604486 -0.53734767 4
5.7671266 -3.2515507 -0.96643776 3
12.907161 -6.7811012 -0.17515993 35
nan nan nan 0
5.7904515 -3.2646987 -0.71704274 3
12.84492 -6.7512712 0.027789986 20
6.4689794 -3.1609087 -0.39926994 3
nan nan nan 0
nan nan nan 0
12.779734 -6.2443585 -0.59216005 14
nan nan nan 0
13.598807 -6.6443782 -0.41912314 14
nan nan nan 0
nan nan nan 0
6.0544515 -2.9624784 -1.2232188 4
14.401194 -6.521637 -0.24503222 10
5.7966571 -3.2735322 -0.34583274 3
15.440277 -6.9951406 -0.026572382 10
6.2869639 -3.5518169 -0.27475539 3
6.6740918 -3.2668102 -0.72375137 3
16.582296 -7.5122228 0.22515394 10
13.726275 -7.7570844 -0.38169706 14
44.30772 -23.332987 10.180723 26
nan nan nan 0
14.74817 -8.3345385 -0.17112722 20
6.9344544 -3.1205757 -1.5728309 4
15.955139 -8.9542208 0.066926248 10
6.687716 -3.0096869 -0.8314786 3
17.304268 -9.7113161 0.3491891 9
6.4150982 -3.3569732 -0.28809386 3
18.887213 -10.60396 0.68334591 16
13.695077 -7.1644716 -0.40109029 29
37.384346 -18.163904 6.5772867 9
5.6589494 -2.9627581 -1.0332707 3
14.52379 -7.0616188 -0.22219045 10
15.599957 -7.5846415 0.0030211648 9
16.812477 -8.1739321 0.26379073 11
12.731208 -5.7337551 -0.60562551 20
38.199734 -21.463614 11.730973 39
18.293903 -8.8978605 0.57077229 12
13.535251 -6.0956125 -0.43692291 10
nan nan nan 0
14.178349 -9.7777338 -0.32700679 11
5.1336646 -3.3192012 -0.46654266 4
15.287832 -10.543114 -0.093816258 10
5.414556 -3.5022583 -0.40231079 4
4.6410475 -3.4057856 -0.58007604 3
16.590046 -11.445724 0.17908935 12
nan nan nan 0
12.715375 -7.7061458 0.90976995 95
4.8512831 -3.5615783 -0.52128285 3
13.063873 -8.4559526 -0.53945607 28
30.369844 -18.406498 3.1412039 41
5.0970325 -3.7436016 -0.4606702 4
4.5624719 -2.953069 -1.9202538 8
12.717547 -7.7104983 -0.33409268 83
5.4636145 -4.0131783 -0.39943856 3
nan nan nan 0
12.723228 -7.7169785 -0.12695664 80
6.001997 -4.4107075 -0.33530068 4
nan nan nan 0
12.726434 -7.7219625 0.080345839 75
13.350207 -9.8199987 -0.51680708 17
4.9493051 -3.2060623 -0.5323506 3
14.389521 -10.584847 -0.30806744 9
4.3115664 -2.6167252 -2.3349667 22
15.525215 -11.424801 -0.063804843 10
nan nan nan 0
16.877262 -12.420159 0.22272074 20
5.8346195 -4.033812 -0.33157635 3
18.47447 -13.605947 0.56386155 14
13.218481 -9.142828 -0.52917826 20
4.287087 -2.9630482 -1.4879212 3
14.001988 -9.0876064 -0.34599596 12
nan nan nan 0
15.095048 -9.7971764 -0.12225141 12
16.348936 -10.611149 0.13921587 12
5.7700911 -3.5076427 -0.33906621 3
40.436161 -29.807455 5.7727294 37
17.773476 -11.540312 0.44683391 14
6.3243761 -3.8446534 -0.26749426 4
nan nan nan 0
14.579962 -7.7247705 -0.19828176 9
nan nan nan 0
5.7530909 -3.2701552 -0.713808 3
12.803604 -6.7867026 0.027751589 63
6.3728132 -3.1415629 -0.39398345 1
nan nan nan 0
12.784347 -6.7764978 0.22925419 100
12.757859 -6.2889309 -0.59216005 9
nan nan nan 0
13.588982 -6.6984344 -0.41953936 11
5.5777621 -3.1730909 -0.42270878 4
12.681921 -6.7307286 0.62778348 98
nan nan nan 0
14.405626 -6.5843301 -0.24549821 10
5.7851949 -3.293746 -0.34583274 3
15.433957 -7.0573077 -0.026603801 10
6.2745271 -3.5737412 -0.27475539 3
nan nan nan 0
16.578711 -7.5804501 0.22546372 11
13.707802 -7.8098993 -0.38193965 23
44.217354 -23.482914 10.178729 14
nan nan nan 0
14.736363 -8.3958673 -0.17132968 17
6.562408 -2.9809551 -1.4904251 3
15.96295 -9.0320177 0.067091182 10
6.6364522 -3.0145428 -0.82638443 3
17.322475 -9.8012009 0.3502467 8
6.4077601 -3.3816764 -0.28829363 3
18.889227 -10.691979 0.68476725 25
13.674405 -7.2145648 -0.40122032 14
37.391666 -18.329065 6.5898018 12
5.6398435 -2.9778867 -1.031665 3
14.552919 -7.1386852 -0.22301772 20
15.609303 -7.6566596 0.0030281462 9
16.824244 -8.2523794 0.26442689 10
12.729308 -5.7864246 -0.60649443 11
37.792599 -21.40877 11.628739 40
18.30312 -8.9814749 0.57203662 10
13.518441 -6.1448894 -0.43707037 9
nan nan nan 0
14.176971 -9.8499889 -0.32776767 9
5.1262236 -3.339823 -0.46692541 3
15.304312 -10.633512 -0.094145268 11
5.4106584 -3.5265892 -0.40293697 4
4.6251326 -3.4190049 -0.5795716 3
16.60746 -11.543522 0.17971241 12
nan nan nan 0
nan nan nan 0
4.7987905 -3.5488479 -0.51694244 3
13.055202 -8.5151539 -0.54032421 12
30.500921 -18.631828 3.1614897 41
5.0879412 -3.764339 -0.46103552 4
4.5994763 -2.9998729 -1.9403611 6
nan nan nan 0
5.4535828 -4.0351963 -0.39973423 3
nan nan nan 0
14.888824 -9.1018209 -0.14893566 12
12.415556 -9.1957836 -0.69726276 4
nan nan nan 0
16.081877 -9.8350639 0.10179844 13
13.34395 -9.887373 -0.51790035 11
nan nan nan 0
14.380597 -10.655851 -0.30867219 9
4.2985406 -2.6293941 -2.3328536 24
15.533435 -11.514665 -0.064003818 10
nan nan nan 0
16.902075 -12.529625 0.22362567 13
5.8246002 -4.0570102 -0.33181098 3
18.467005 -13.700142 0.56509191 14
13.194686 -9.1946287 -0.52950805 10
4.3003697 -2.9944828 -1.4962106 3
14.012014 -9.1637907 -0.34703434 12
nan nan nan 0
15.110969 -9.8826532 -0.12265983 11
16.357821 -10.698259 0.13960944 12
5.7492962 -3.5225441 -0.33856201 3
40.291992 -29.918806 5.7670174 33
17.791645 -11.640603 0.44831207 14
6.3151779 -3.8693171 -0.26767573 4
nan nan nan 0
14.623467 -7.8133082 -0.19924517 9
nan nan nan 0
5.8020239 -3.3248134 -0.7213558 3
12.788656 -6.8360677 0.027770789 40
6.3707495 -3.1682312 -0.39453992 1
5.77075 -3.3082335 -0.62419605 3
12.751796 -6.8163695 0.22909537 97
12.767142 -6.3489904 -0.59361959 11
nan nan nan 0
13.587894 -6.7569509 -0.42023304 23
5.5796371 -3.1999869 -0.42370027 4
12.667157 -6.7796683 0.62822133 97
5.9411397 -2.9586647 -1.2043724 3
14.418877 -6.6513186 -0.24611953 10
5.8083086 -3.3338027 -0.34791923 3
15.427389 -7.1195159 -0.02663522 9
6.2750134 -3.6030841 -0.27532858 4
nan nan nan 0
16.579386 -7.6508379 0.22583547 11
13.719467 -7.880106 -0.38303125 10
39.293217 -21.044178 9.0612726 37
nan nan nan 0
14.737316 -8.4646864 -0.17168398 11
6.4851966 -2.9732759 -1.4751648 3
15.966069 -9.107502 0.067237787 10
6.5897532 -3.0211458 -0.82185632 3
17.322899 -9.881424 0.35095179 13
6.360631 -3.385253 -0.28669533 3
18.873491 -10.770233 0.68555689 20
13.627075 -7.2505169 -0.40057027 13
37.354019 -18.472607 6.5944943 17
5.5858479 -2.9743714 -1.0236365 3
14.523431 -7.1872244 -0.22294879 11
15.613853 -7.7266178 0.0030342548 17
16.826704 -8.3265734 0.26492167 10
12.740818 -5.8453956 -0.608015 17
37.868622 -21.626783 11.675327 29
18.32093 -9.0696955 0.57358187 10
13.519625 -6.2024546 -0.43780765 9
nan nan nan 0
14.187549 -9.9309578 -0.32881397 17
5.118701 -3.3604336 -0.46730813 3
15.320345 -10.724151 -0.094474263 23
5.4024854 -3.5481946 -0.40325007 4
4.6012063 -3.4262085 -0.57805842 3
16.599829 -11.624372 0.18006846 11
nan nan nan 0
23.574579 -14.513894 1.6958699 10
4.8063374 -3.5804689 -0.51911265 3
13.046277 -8.5743971 -0.54119235 10
30.541727 -18.803465 3.1725144 37
5.0947533 -3.7969878 -0.46286213 4
4.4630241 -2.9330802 -1.8867414 19
13.829604 -8.5173836 -0.36493549 10
5.4634662 -4.0721183 -0.40150821 3
nan nan nan 0
14.873987 -9.1642284 -0.14910671 12
12.423407 -9.2689457 -0.6995222 4
nan nan nan 0
16.094269 -9.9200001 0.10209602 12
13.353404 -9.9667835 -0.51961839 14
nan nan nan 0
14.375359 -10.729913 -0.30936328 9
4.2854791 -2.6420045 -2.3307405 32
15.537208 -11.60173 -0.064186208 10
nan nan nan 0
16.934341 -12.645399 0.22463708 12
5.8471885 -4.1031504 -0.33392295 3
18.491133 -13.818391 0.56730652 14
13.199316 -9.2664795 -0.53099221 17
4.2151747 -2.9570029 -1.4699612 3
14.021681 -9.2401571 -0.34807277 11
nan nan nan 0
15.122299 -9.9656048 -0.1230342 12
16.362123 -10.782808 0.13996722 13
5.7539601 -3.5530877 -0.33957037 3
nan nan nan 0
17.792635 -11.730154 0.44936791 14
6.3143868 -3.8992143 -0.26822016 4
nan nan nan 0
12.941082 -6.972795 -0.17660505 9
nan nan nan 0
5.7516427 -3.3226702 -0.71650362 3
12.835141 -6.9186187 0.027924377 26
6.3730412 -3.197161 -0.39537463 1
5.7333064 -3.3134141 -0.62137794 3
12.741128 -6.8679552 0.22933361 75
12.744903 -6.3935175 -0.59361959 8
nan nan nan 0
13.573161 -6.8088212 -0.4205105 11
5.5209198 -3.1919794 -0.42006481 4
12.652207 -6.828588 0.62865931 96
5.8868136 -2.9573221 -1.195398 3
14.436366 -6.7205901 -0.24681851 10
5.7923141 -3.3515565 -0.3476584 3
15.425109 -7.1838732 -0.026674494 11
6.2667227 -3.6274686 -0.27551964 3
nan nan nan 0
16.570709 -7.7171025 0.22608328 11
13.713506 -7.9404702 -0.38363767 8
39.098797 -21.116018 9.0333605 41
6.3133883 -3.1741607 -0.5891211 3
14.742294 -8.5361195 -0.17208891 4
6.4347825 -2.9774148 -1.4660085 3
15.977527 -9.1881037 0.067421049 1
6.5295601 -3.0212083 -0.81563014 3
nan nan nan 0
6.3399706 -3.4027119 -0.28629577 3
nan nan nan 0
13.042296 -6.9979739 -0.38405859 29
nan nan nan 0
5.5319457 -2.9705153 -1.015608 3
14.529569 -7.2535033 -0.22343136 17
15.604681 -7.7900028 0.0030377454 13
16.824375 -8.3986521 0.26534578 9
12.720336 -5.8898335 -0.608015 11
38.140293 -21.958841 11.782737 20
18.351763 -9.1648464 0.57554859 10
13.516035 -6.2580037 -0.4383975 9
nan nan nan 0
14.169137 -9.9919472 -0.32919443 13
5.123569 -3.3892872 -0.46883905 3
15.311416 -10.797736 -0.094651416 12
5.4108701 -3.5808058 -0.40481544 4
4.5892186 -3.4422486 -0.57805842 3
16.6 -11.711072 0.18051352 12
nan nan nan 0
23.625547 -14.659249 1.7032167 10
4.8256679 -3.6211612 -0.52258497 3
13.049595 -8.6419621 -0.54258138 28
30.594402 -18.983492 3.1848626 31
5.1013985 -3.8297291 -0.46468872 4
4.3820729 -2.9018023 -1.8565804 4
13.808283 -8.5708799 -0.36516061 10
5.4611878 -4.1001611 -0.40239519 3
nan nan nan 0
14.884383 -9.2424688 -0.14953431 12
12.426908 -9.3392706 -0.70155567 4
nan nan nan 0
16.102015 -10.002505 0.10236655 12
13.330514 -10.022346 -0.52008688 11
nan nan nan 0
14.381765 -10.813084 -0.31031358 9
4.2762308 -2.6569474 -2.3307405 37
15.524583 -11.676939 -0.064302281 11
nan nan nan 0
16.930046 -12.734495 0.22516939 12
5.8491392 -4.1350751 -0.33486161 3
18.518652 -13.939981 0.56964415 14
13.191365 -9.329813 -0.53198159 10
4.1852136 -2.9578216 -1.4630536 3
14.022654 -9.3111706 -0.34890348 11
4.5692806 -3.2307518 -0.66791528 4
15.120742 -10.040462 -0.12330648 13
16.36187 -10.864754 0.14028923 13
5.7372828 -3.5705125 -0.33931831 3
38.931702 -29.332445 5.6013641 23
17.818199 -11.836452 0.45105726 17
6.3092213 -3.9265127 -0.26858309 4
nan nan nan 0
12.929843 -7.025084 -0.17678568 34
nan nan nan 0
nan nan nan 0
12.824091 -6.9705405 0.027953174 34
nan nan nan 0
5.7131028 -3.3283961 -0.62043864 3
12.734648 -6.9219365 0.22965124 73
12.74034 -6.4469857 -0.59445363 6
nan nan nan 0
13.580532 -6.8719497 -0.42148167 17
5.48388 -3.1961601 -0.41808179 4
12.645845 -6.8822603 0.6295352 96
5.8106265 -2.9445288 -1.1819363 3
14.444497 -6.7858138 -0.24736215 13
5.7633266 -3.3616936 -0.34661517 3
15.413514 -7.2440505 -0.026698057 12
6.2626538 -3.6543572 -0.27590176 3
6.3259535 -3.2067914 -0.69063216 2
16.588924 -7.796155 0.22670287 11
13.70729 -8.0008888 -0.38424411 11
38.783886 -21.121157 8.9775372 25
nan nan nan 0
13.015405 -7.5970697 -0.15219745 39
nan nan nan 0
nan nan nan 0
6.4514384 -3.0124896 -0.80713987 4
13.049508 -7.565155 0.26528502 12
6.3016877 -3.4105597 -0.28509703 3
nan nan nan 0
13.017789 -7.0434575 -0.38405859 36
38.132908 -19.190193 6.7556219 37
5.5041819 -2.980412 -1.0123966 3
14.517559 -7.3109207 -0.22363818 11
15.626521 -7.8691559 0.0030473447 10
16.826218 -8.4730654 0.26584056 10
12.722329 -5.9447665 -0.60910112 10
36.634846 -21.262733 11.340156 37
18.333054 -9.2355957 0.57597011 11
13.51675 -6.3157177 -0.43913478 10
nan nan nan 0
14.187145 -10.078992 -0.3304309 10
5.1117063 -3.4071512 -0.46883905 4
15.310312 -10.877185 -0.094879188 11
5.4024892 -3.6024415 -0.40512854 4
4.5732074 -3.4552455 -0.57755399 3
16.607922 -11.803711 0.18104759 12
nan nan nan 0
23.671556 -14.802488 1.7102573 10
4.8129983 -3.637984 -0.52258497 3
13.035975 -8.698555 -0.54327583 13
30.625074 -19.150906 3.1950052 20
5.0919752 -3.8505232 -0.46505404 3
4.3758354 -2.9196968 -1.8582561 5
13.829133 -8.6508398 -0.36651137 10
5.4508224 -4.1222124 -0.40269086 4
nan nan nan 0
14.885938 -9.3155899 -0.1498764 12
12.43405 -9.4127493 -0.70381516 23
nan nan nan 0
16.109379 -10.085182 0.10263707 12
13.32333 -10.089943 -0.52118015 10
4.8750768 -3.2554877 -0.52918458 4
14.391748 -10.899448 -0.31135029 9
4.2861323 -2.6838849 -2.341306 32
15.539515 -11.773341 -0.064534418 10
nan nan nan 0
16.917368 -12.817675 0.22559524 11
5.8509378 -4.1670628 -0.33580023 3
18.521654 -14.043807 0.57124358 14
13.215688 -9.4164095 -0.53429025 17
4.1787758 -2.9752014 -1.464435 3
14.031612 -9.3878632 -0.34994191 10
4.537765 -3.2322714 -0.6649335 4
15.127154 -10.120988 -0.12364682 13
16.352932 -10.941265 0.14053969 13
5.7374754 -3.5984786 -0.3400746 3
38.738075 -29.399092 5.5882258 11
17.814161 -11.923607 0.45200753 17
6.3124084 -3.9591331 -0.26930901 4
nan nan nan 0
12.914013 -7.0749793 -0.17690609 14
nan nan nan 0
nan nan nan 0
12.804066 -7.0176654 0.027962774 35
nan nan nan 0
5.7357907 -3.3684821 -0.62419605 3
12.745481 -6.9855652 0.23028652 57
12.740007 -6.5027699 -0.59549618 5
nan nan nan 0
13.569818 -6.926127 -0.42189789 10
5.4468794 -3.2001216 -0.4160988 4
12.648021 -6.9407768 0.630849 96
5.7565055 -2.9424245 -1.1729617 3
14.425241 -6.8383341 -0.24743982 14
5.7472525 -3.3792601 -0.34635437 3
15.410728 -7.3085175 -0.026737332 11
6.2498589 -3.6761954 -0.27590176 3
nan nan nan 0
16.602272 -7.8732853 0.22726049 11
13.063205 -7.6862268 -0.36689979 42
38.770054 -21.289421 8.9914932 32
nan nan nan 0
13.014661 -7.6576667 -0.15250114 100
7.0605459 -3.3265822 -1.6145424 5
12.981785 -7.5865631 0.054977749 39
6.4229031 -3.0265303 -0.80487579 3
12.958278 -7.5728264 0.26396298 41
6.2678142 -3.4205747 -0.28409809 3
12.999971 -7.600235 0.47472563 31
13.66449 -7.4550481 -0.4039506 25
38.501659 -19.54446 6.8330574 39
5.4720836 -2.9877875 -1.0083822 4
14.532068 -7.3819232 -0.22425863 17
15.612332 -7.9304466 0.0030499629 14
16.836657 -8.5521183 0.26647672 25
12.715056 -5.9955277 -0.60975277 9
36.78968 -21.524622 11.411332 38
18.376455 -9.3380146 0.57835823 11
13.521749 -6.3756442 -0.44001955 9
nan nan nan 0
14.212848 -10.172105 -0.33185765 25
5.1039205 -3.4277542 -0.46922174 3
15.304774 -10.953848 -0.095081657 11
5.3940229 -3.6240616 -0.40544161 4
4.5690317 -3.4772179 -0.5785628 3
16.619457 -11.899456 0.18162616 11
nan nan nan 0
23.691517 -14.930261 1.7154611 11
4.7606568 -3.6245635 -0.51824456 4
13.034556 -8.763526 -0.54449123 9
30.74765 -19.377186 3.2148502 17
5.0943637 -3.8803694 -0.46651533 3
4.3656168 -2.9349532 -1.8582561 5
13.824224 -8.7150555 -0.36718678 10
5.4443369 -4.1472673 -0.40328217 4
nan nan nan 0
14.882931 -9.3861647 -0.15017574 13
12.436857 -9.4833622 -0.70584863 10
4.7998967 -3.2283244 -0.603172 5
16.124819 -10.173369 0.1029617 12
13.351595 -10.1849 -0.52367908 14
nan nan nan 0
14.417202 -10.998146 -0.31273252 14
4.269074 -2.6939924 -2.3370795 34
15.557938 -11.873024 -0.064783141 11
nan nan nan 0
16.932135 -12.922158 0.22639371 12
5.8525839 -4.1991129 -0.33673888 3
18.528124 -14.150858 0.57296604 13
13.207094 -9.4799728 -0.53527969 11
4.1566553 -2.9813619 -1.4602904 3
14.031915 -9.4591427 -0.35077262 10
4.5022631 -3.2307146 -0.66135538 4
15.133191 -10.201683 -0.12398718 12
16.351948 -11.023437 0.14086169 17
5.7375417 -3.6264892 -0.34083086 3
35.103481 -26.83392 5.0769858 10
17.813875 -12.01367 0.4530634 14
13.001283 -8.2184362 -0.55730993 4
nan nan nan 0
14.635493 -8.0843964 -0.20093113 9
nan nan nan 0
nan nan nan 0
12.818881 -7.0840793 0.028049167 11
nan nan nan 0
5.7368488 -3.3960898 -0.62560505 3
12.751653 -7.0469365 0.23084238 28
nan nan nan 0
nan nan nan 0
nan nan nan 0
5.4270892 -3.2140317 -0.41543779 4
12.671797 -7.0114813 0.63325769 84
5.7155895 -2.9467354 -1.1666796 3
14.423836 -6.8994274 -0.24782816 11
5.72683 -3.3942099 -0.34583274 3
15.412184 -7.3752098 -0.026784459 10
6.2412863 -3.700537 -0.27609286 3
5.8964448 -3.0411847 -0.6458239 2
16.610767 -7.9484463 0.22775614 11
13.006199 -7.7139311 -0.36605075 97
38.562614 -21.351059 8.9605913 34
6.425952 -3.3154352 -0.60289931 3
12.983551 -7.7005 -0.15245052 96
7.000246 -3.3281095 -1.6033515 3
12.91645 -7.6089926 0.054812815 96
nan nan nan 0
12.871459 -7.5824909 0.26272911 97
6.2602134 -3.4448397 -0.28429788 3
12.887251 -7.5948234 0.47156709 11
13.68218 -7.5267878 -0.40525073 12
38.420013 -19.671986 6.8307109 28
7.0571222 -3.8847301 -1.3046347 3
12.988816 -6.6554451 -0.20075043 20
15.629057 -8.0076876 0.0030586894 12
16.833403 -8.6245117 0.26690081 12
12.707585 -6.0463099 -0.61040443 9
36.215103 -21.358498 11.25604 36
nan nan nan 0
13.531007 -6.4378276 -0.44105178 10
nan nan nan 0
14.20969 -10.245049 -0.33261856 11
5.1001801 -3.451139 -0.46998721 3
15.306996 -11.03645 -0.095334731 11
5.3854713 -3.6456666 -0.40575472 4
4.5647583 -3.4992042 -0.5795716 3
16.626478 -11.992502 0.18216023 10
nan nan nan 0
23.719299 -15.063706 1.7212774 11
4.8348923 -3.7079003 -0.52779347 3
13.036982 -8.8313951 -0.54588026 9
30.906851 -19.628588 3.2386637 12
5.0966058 -3.9102795 -0.4679766 4
4.3553452 -2.9501743 -1.8582561 5
13.814813 -8.7766609 -0.3677496 11
5.4575353 -4.187531 -0.40535182 3
nan nan nan 0
14.866956 -9.4487877 -0.15034677 14
12.443284 -9.5571518 -0.70810807 9
nan nan nan 0
16.127182 -10.253737 0.10320517 13
13.335772 -10.246672 -0.52445996 12
nan nan nan 0
14.398541 -11.063639 -0.31316447 13
4.2596436 -2.7088778 -2.3370795 33
15.57585 -11.972979 -0.065031856 11
nan nan nan 0
16.946375 -13.026901 0.22719219 13
5.8662186 -4.2400074 -0.33838153 3
18.561804 -14.279464 0.57554972 13
13.218462 -9.5582342 -0.53709364 17
4.1345425 -2.9874041 -1.4561459 3
14.031891 -9.5305386 -0.35160336 9
4.4788928 -3.2376795 -0.65956628 4
15.147117 -10.288161 -0.12439558 12
16.346458 -11.102927 0.14114793 13
5.7248478 -3.6464944 -0.34083086 3
32.42791 -24.968121 4.7022672 31
17.825579 -12.112306 0.454436 17
12.989373 -8.2745066 -0.55803585 4
nan nan nan 0
14.646499 -8.1573257 -0.20147304 10
nan nan nan 0
nan nan nan 0
15.799261 -8.8028221 0.034653489 11
nan nan nan 0
5.7206845 -3.4135437 -0.62513536 3
17.138111 -9.5486288 0.31104562 10
6.3048892 -3.2753515 -0.29503751 3
nan nan nan 0
12.984358 -6.7420979 -0.40511075 31
5.3944173 -3.2201719 -0.41378528 4
12.621069 -7.0410714 0.63194382 89
nan nan nan 0
14.413172 -6.9562492 -0.24806114 10
5.7363811 -3.4269822 -0.34713677 3
15.422372 -7.4463477 -0.026847297 10
6.2283316 -3.7223008 -0.27609286 3
5.9078712 -3.0732222 -0.6482591 3
16.623447 -8.0259352 0.22831376 11
12.92771 -7.728508 -0.36459529 71
38.509243 -21.497477 8.9655752 41
nan nan nan 0
12.806392 -7.6559873 -0.15067901 77
6.1012049 -2.9273629 -1.3988632 4
12.821023 -7.6131902 0.054519601 83
nan nan nan 0
12.763239 -7.5788808 0.26105455 93
6.2612581 -3.4739399 -0.28489724 4
12.843474 -7.6295528 0.4709354 21
13.699534 -7.5987411 -0.40655085 11
37.42086 -19.325632 6.6648903 28
7.0003638 -3.8853989 -1.2966062 3
12.956621 -6.6961546 -0.20061255 36
12.922311 -6.678431 0.0025324726 6
12.876604 -6.65482 0.20441662 5
12.717929 -6.1057568 -0.61192507 9
36.094669 -21.457638 11.241804 39
12.805055 -6.6206899 0.40416241 37
13.526476 -6.4936681 -0.4416416 9
nan nan nan 0
14.206196 -10.318094 -0.33337951 20
5.0881023 -3.4689212 -0.46998721 4
15.31692 -11.125083 -0.095638432 11
5.3809562 -3.6700687 -0.40638086 4
4.5367742 -3.5029457 -0.57755399 3
16.624958 -12.079861 0.18260527 11
5.7522559 -3.9234471 -0.33756518 3
23.767454 -15.210977 1.7286241 11
4.8100991 -3.7156126 -0.52649134 3
13.030839 -8.893754 -0.54692203 10
31.047892 -19.870592 3.2607133 12
5.098701 -3.9402521 -0.4694379 4
4.3489108 -2.9680161 -1.8599316 3
13.805141 -8.8383074 -0.36831242 9
5.4586749 -4.2187724 -0.40653446 3
nan nan nan 0
14.880196 -9.5302887 -0.15081716 12
12.445396 -9.6280422 -0.71014154 14
nan nan nan 0
16.1376 -10.339643 0.10350275 13
13.347342 -10.329877 -0.52633423 10
nan nan nan 0
14.391456 -11.138316 -0.31385559 10
4.2539773 -2.7261758 -2.3391926 35
15.577443 -12.060953 -0.065214247 11
nan nan nan 0
16.952183 -13.125774 0.22788419 17
5.8998208 -4.2957544 -0.34119746 4
18.602711 -14.414602 0.57837945 13
13.201175 -9.6160898 -0.53775328 11
4.1007872 -2.9848387 -1.4478565 3
14.027413 -9.599225 -0.35233024 10
4.447506 -3.238673 -0.65658456 4
15.160623 -10.374859 -0.12480399 12
16.357113 -11.193807 0.14157727 12
5.7288933 -3.6772468 -0.34183922 3
32.167858 -24.947203 4.6771331 28
17.853308 -12.222466 0.45623091 14
12.973024 -8.3278961 -0.55858028 4
nan nan nan 0
14.639732 -8.2206402 -0.20177411 10
6.059412 -3.1721542 -0.47455269 3
nan nan nan 0
15.807672 -8.8799524 0.034739882 11
nan nan nan 0
5.708734 -3.4334919 -0.62513536 3
17.130831 -9.6230822 0.31152207 10
6.2712874 -3.2857561 -0.29399496 4
nan nan nan 0
13.013882 -6.815196 -0.40677559 35
5.3532181 -3.2209795 -0.41147181 3
12.748806 -7.1707773 0.63960773 43
5.638236 -2.9568911 -1.1550128 3
14.42027 -7.021832 -0.24860479 23
5.7243834 -3.446985 -0.34713677 3
15.445737 -7.5242124 -0.0269337 10
6.2281394 -3.7517524 -0.27666605 3
5.8750696 -3.0822749 -0.6458239 3
16.626797 -8.0992336 0.22874746 11
12.742239 -7.6781392 -0.36010757 67
38.459591 -21.646187 8.9715567 37
5.8598857 -3.0756209 -0.55154431 3
12.741046 -7.6774206 -0.15022348 67
nan nan nan 0
12.772917 -7.6450577 0.05442797 90
nan nan nan 0
12.625175 -7.5566359 0.25876305 53
6.262176 -3.5030887 -0.28549662 3
12.786751 -7.6563697 0.46982992 43
13.694742 -7.6587119 -0.40720093 25
37.699196 -19.636343 6.7266817 34
6.7283301 -3.7652624 -1.248435 3
12.942037 -6.7459612 -0.20075043 37
12.87675 -6.711946 0.0025281094 28
12.871032 -6.7089667 0.20469934 35
12.732508 -6.1675248 -0.61366284 8
36.036118 -21.593431 11.246981 40
12.843915 -6.69769 0.40612915 97
13.52172 -6.5495548 -0.44223145 9
nan nan nan 0
14.190265 -10.382383 -0.33385506 12
5.0677452 -3.4810133 -0.46922174 3
15.318342 -11.208011 -0.095891505 10
5.3722248 -3.6916571 -0.40669394 4
4.5323682 -3.5248735 -0.5785628 3
16.635134 -12.176215 0.18318385 12
5.742641 -3.9463322 -0.33780858 3
23.793898 -15.345242 1.7344403 11
4.7931705 -3.7293189 -0.5260573 4
13.020299 -8.9533443 -0.54779017 10
31.120647 -20.070629 3.2757075 13
5.0809832 -3.9549611 -0.46907261 4
4.2376194 -2.9137509 -1.8163657 3
13.82041 -8.9162531 -0.36955065 10
5.4832845 -4.2684827 -0.40949106 3
nan nan nan 0
14.893047 -9.6119986 -0.15128753 12
12.451106 -9.7021379 -0.71240097 10
nan nan nan 0
16.143415 -10.423034 0.10377328 14
13.35455 -10.410211 -0.52805215 14
nan nan nan 0
14.384026 -11.213078 -0.3145467 10
4.2444348 -2.741008 -2.3391926 50
15.570728 -12.142936 -0.065363482 12
nan nan nan 0
16.953568 -13.221775 0.22852299 14
5.8686843 -4.3045011 -0.34025881 6
18.6035 -14.519437 0.57997894 13
13.211839 -9.6946373 -0.53956717 17
4.090343 -2.9991345 -1.4478565 4
14.022627 -9.6679974 -0.35305712 11
4.408164 -3.2336104 -0.65241009 3
15.16136 -10.453264 -0.1251103 13
16.371449 -11.287736 0.14204241 12
5.7160225 -3.6972222 -0.34183922 4
31.947496 -24.955362 4.657712 37
17.872257 -12.32729 0.45781469 17
12.964853 -8.3867006 -0.55948764 6
nan nan nan 0
14.654459 -8.296319 -0.20237625 9
6.0085964 -3.1723428 -0.47142145 3
nan nan nan 0
15.807035 -8.952323 0.034807079 11
6.0530186 -3.1971245 -0.37951511 3
5.7222562 -3.4688795 -0.62795341 3
17.127588 -9.7000647 0.31207794 10
6.2686157 -3.3122916 -0.29441199 3
5.2725859 -3.1975932 -0.49215433 3
13.577871 -7.170917 -0.42522755 17
5.3376756 -3.2370596 -0.41114131 3
20.4673 -11.605279 1.0298101 10
5.5843892 -2.9535754 -1.1460384 3
14.400159 -7.0743284 -0.24868247 13
5.712316 -3.4669459 -0.34713677 3
15.446303 -7.5913086 -0.026980825 9
6.2278185 -3.7812476 -0.27723923 4
5.8334789 -3.0864859 -0.64241457 4
16.625349 -8.1704493 0.22911921 11
12.711087 -7.7199769 -0.35998628 79
38.648003 -21.93021 9.0333605 33
5.8491139 -3.0960569 -0.55154431 3
12.71417 -7.7218485 -0.15022348 67
nan nan nan 0
12.746154 -7.6895976 0.05442797 92
6.5318327 -3.1899571 -0.8241204 4
12.65437 -7.6342297 0.2599088 46
6.254262 -3.52738 -0.28569639 3
12.74711 -7.6932092 0.46935615 54
13.68534 -7.7162857 -0.40772095 12
37.652279 -19.779297 6.7305923 31
6.2680812 -3.5366118 -1.1649384 3
14.524952 -7.6352654 -0.22577529 12
12.839964 -6.7498765 0.0025254912 54
12.816555 -6.737576 0.20420456 57
12.706412 -6.2097397 -0.61344564 8
36.402874 -21.98625 11.385449 40
12.780642 -6.7215524 0.40486482 97
13.530211 -6.6120667 -0.44326365 9
nan nan nan 0
14.178079 -10.449653 -0.33442578 10
5.0801554 -3.5157101 -0.4715181 3
15.319366 -11.291083 -0.096144579 10
5.3716125 -3.7189114 -0.40763319 4
4.5513496 -3.5652339 -0.58259815 4
16.644838 -12.272789 0.18376242 12
5.765779 -3.9919469 -0.33999896 3
23.811327 -15.474437 1.7396442 11
4.787961 -3.7521772 -0.52692538 4
13.034147 -9.0300474 -0.54970002 9
31.192387 -20.271416 3.2907009 11
5.0749922 -3.9788303 -0.46980321 3
4.239038 -2.9365766 -1.8213925 3
13.831112 -8.9916887 -0.37067631 11
5.491909 -4.3060875 -0.41126505 3
nan nan nan 0
14.901317 -9.691185 -0.15171511 11
12.444662 -9.7671347 -0.71398258 8
nan nan nan 0
16.148842 -10.506588 0.1040438 14
13.337783 -10.472199 -0.52883315 12
nan nan nan 0
14.388042 -11.29719 -0.31549701 10
4.2310438 -2.7533352 -2.3370795 51
15.587217 -12.243554 -0.065612204 11
nan nan nan 0
16.950554 -13.314854 0.22910853 12
5.9098454 -4.3665323 -0.34354407 4
18.643076 -14.655351 0.58280867 13
13.189973 -9.7496109 -0.54006195 12
4.064394 -3.0019665 -1.4423304 4
14.033954 -9.7482615 -0.35419935 10
4.3808851 -3.237169 -0.65002465 4
15.165842 -10.534651 -0.12545066 17
16.393539 -11.387605 0.14257908 12
5.7030821 -3.7171521 -0.34183922 3
31.719662 -24.956144 4.6371484 38
17.870167 -12.418131 0.45887053 17
12.94387 -8.4373617 -0.55985057 9
nan nan nan 0
14.651465 -8.3622894 -0.20273751 17
5.9622574 -3.1745577 -0.46863815 3
nan nan nan 0
15.806085 -9.0247965 0.034874272 12
5.9977508 -3.1947815 -0.37673277 3
5.6973686 -3.4810476 -0.62654442 3
17.145725 -9.7895336 0.31303084 12
6.2393765 -3.3247623 -0.29357794 3
5.2358756 -3.2003849 -0.48975354 3
13.570403 -7.2276635 -0.4257825 13
5.356143 -3.2738829 -0.41345477 3
20.509062 -11.723747 1.0339705 10
5.5436583 -2.9568594 -1.1397563 3
14.397779 -7.1356468 -0.24907079 11
5.7044396 -3.4894698 -0.3473976 3
15.460032 -7.6651607 -0.027051518 10
6.214582 -3.8029637 -0.27723923 4
5.8051047 -3.0974669 -0.64046639 3
16.632563 -8.246191 0.22961487 11
12.675536 -7.7590814 -0.35974371 37
38.677544 -22.125805 9.0582809 39
5.8382711 -3.1164551 -0.55154431 3
14.772405 -9.0425339 -0.17497392 12
5.9252658 -2.9197683 -1.3652904 3
12.706417 -7.7262502 0.054372992 29
6.5028286 -3.2039647 -0.82185632 4
12.747249 -7.7510762 0.26237658 54
6.2288804 -3.5417843 -0.28509703 3
12.570739 -7.6467624 0.46382871 58
13.688741 -7.7812972 -0.40863106 10
37.604828 -19.922167 6.7345033 32
5.8996105 -3.3560197 -1.0983016 3
14.502628 -7.688261 -0.22584422 12
12.816323 -6.7946548 0.0025254912 38
12.775288 -6.7729092 0.20392182 87
12.724988 -6.2739258 -0.61540067 6
36.895218 -22.459738 11.564035 39
12.752685 -6.763783 0.40472433 98
13.53843 -6.6747184 -0.44429588 25
nan nan nan 0
14.181649 -10.528884 -0.33537692 9
5.0760303 -3.5391269 -0.47228357 3
15.320003 -11.3743 -0.096397668 10
5.3626909 -3.740495 -0.40794629 4
4.5544901 -3.5934346 -0.58461577 4
16.658087 -12.372561 0.18438549 11
5.7640963 -4.0206232 -0.34072909 4
23.840666 -15.612141 1.7457665 11
4.7592015 -3.7565131 -0.52518922 4
13.039423 -9.1012335 -0.55126268 10
31.296432 -20.494776 3.3092232 10
5.0806313 -4.0119848 -0.47162983 3
4.1785517 -2.9162903 -1.7996095 3
13.841455 -9.0673075 -0.37180194 11
5.4964209 -4.3407097 -0.41274336 4
nan nan nan 0
14.913397 -9.7732887 -0.15218548 11
12.437918 -9.8322039 -0.71556425 8
nan nan nan 0
16.153883 -10.590308 0.10431432 14
13.332499 -10.543499 -0.53008258 10
nan nan nan 0
14.399487 -11.387668 -0.31662005 9
4.2289853 -2.7730584 -2.341306 64
15.599275 -12.341331 -0.065844342 11
nan nan nan 0
16.982382 -13.435997 0.23017314 13
nan nan nan 0
18.662334 -14.7762 0.58502328 13
13.203951 -9.8314133 -0.54204077 14
4.0346212 -3.0017834 -1.4354227 4
14.044888 -9.8287201 -0.35534155 10
4.3576169 -3.2435434 -0.64823562 4
15.161744 -10.61046 -0.12572291 25
16.386457 -11.467697 0.14286532 13
5.7025938 -3.7452619 -0.34259555 3
31.484428 -24.949465 4.6154418 39
17.867659 -12.509106 0.45992637 14
12.939398 -8.4989538 -0.56093943 11
nan nan nan 0
14.643853 -8.4258461 -0.20303857 10
5.9555354 -3.1977084 -0.46898609 6
nan nan nan 0
15.817822 -9.1048555 0.034970269 11
5.9601698 -3.2015345 -0.37506333 3
nan nan nan 0
17.163446 -9.8792486 0.31398377 12
6.2101274 -3.3370697 -0.29274392 3
5.1864796 -3.1951177 -0.48615241 3
nan nan nan 0
5.3574266 -3.3004086 -0.41444629 3
20.532938 -11.832674 1.037255 6
5.4943066 -2.9552388 -1.1316793 3
14.399616 -7.1992688 -0.24953678 20
5.7177277 -3.5250812 -0.34896246 3
15.455543 -7.7302575 -0.02709079 11
6.2225332 -3.8377461 -0.27819458 4
5.7767243 -3.1082871 -0.63851821 3
16.648399 -8.3265533 0.23023446 12
13.716173 -8.4619923 -0.39018729 10
38.629787 -22.277811 9.065259 37
5.8273568 -3.1368155 -0.55154431 4
14.783303 -9.1202936 -0.17548005 11
nan nan nan 0
15.996119 -9.8030634 0.068630554 11
nan nan nan 0
17.383331 -10.653149 0.35879576 17
6.2164793 -3.5635056 -0.28509703 3
12.561013 -7.7010441 0.46446043 40
13.661495 -7.8290319 -0.40863106 9
37.225792 -19.888107 6.6789694 37
5.9007044 -3.3839552 -1.1007103 3
12.967691 -6.9329581 -0.2022671 35
12.849856 -6.869987 0.0025368361 32
12.764797 -6.8245316 0.20413387 68
nan nan nan 0
36.812473 -22.585865 11.56274 38
12.728996 -6.8082571 0.40472433 99
13.528476 -6.7286096 -0.44473827 13
nan nan nan 0
14.196849 -10.617254 -0.33661342 20
5.0677242 -3.55969 -0.47266626 3
15.30823 -11.448674 -0.096574821 10
5.3455191 -3.7563214 -0.40763319 4
4.5380263 -3.6062136 -0.58411133 4
16.658827 -12.463584 0.18487506 11
5.7745385 -4.0579534 -0.34218934 4
23.873497 -15.752989 1.7521949 10
4.8045187 -3.8196361 -0.53169984 4
13.044359 -9.1725674 -0.55282533 23
31.341095 -20.680704 3.3215709 11
5.0821996 -4.0421205 -0.47309113 3
4.1606412 -2.9254367 -1.7962582 4
13.847264 -9.1403532 -0.37281501 10
5.5163765 -4.3878517 -0.41540429 4
nan nan nan 0
14.908396 -9.8445721 -0.15248482 12
12.438684 -9.9035702 -0.71759772 8
nan nan nan 0
16.158535 -10.674191 0.10458485 14
13.319066 -10.608662 -0.53101969 10
nan nan nan 0
14.402657 -11.472134 -0.31757036 9
4.2154989 -2.785305 -2.3391926 55
15.599107 -12.42999 -0.066026732 11
nan nan nan 0
17.001841 -13.548175 0.23107809 13
12.383183 -9.2874489 -0.72557259 3
18.673164 -14.891127 0.58699185 12
13.201532 -9.9014378 -0.54336005 12
4.9658422 -3.7224007 -1.7739006 4
14.055433 -9.9093761 -0.35648382 10
4.3939133 -3.2944944 -0.65539187 3
15.149132 -10.680609 -0.12592714 12
16.399448 -11.562284 0.14333044 13
5.697813 -3.7706571 -0.34309971 4
31.276804 -24.96315 4.597734 39
17.88924 -12.617502 0.46161571 14
12.917985 -8.5495853 -0.56130236 13
nan nan nan 0
14.657604 -8.5019922 -0.20364073 9
5.8390446 -3.1615226 -0.4606362 4
nan nan nan 0
nan nan nan 0
5.9270043 -3.2104397 -0.37367216 4
nan nan nan 0
nan nan nan 0
6.1940479 -3.356348 -0.29253542 3
5.1541224 -3.2000599 -0.48415178 4
13.00976 -7.0462027 -0.40968904 37
5.3416348 -3.3164585 -0.41411579 3
20.543341 -11.934381 1.0398827 6
5.4580097 -2.9603398 -1.1262946 3
14.374397 -7.2494888 -0.24953678 17
5.7053881 -3.5450182 -0.34896246 3
15.446323 -7.7931657 -0.027122211 11
6.2006121 -3.8541689 -0.27781245 4
5.7570906 -3.1236901 -0.6375441 3
16.659409 -8.4048767 0.23079208 11
13.720512 -8.5309334 -0.39115763 10
38.649212 -22.469156 9.0881863 38
5.7462912 -3.1191347 -0.54486394 6
14.781099 -9.19032 -0.17583436 10
nan nan nan 0
16.029867 -9.900878 0.068923771 10
nan nan nan 0
17.384321 -10.737406 0.35958898 17
6.2040024 -3.5851836 -0.28509703 3
nan nan nan 0
13.634084 -7.8766727 -0.40863106 13
37.243092 -20.064766 6.6946125 39
5.8632178 -3.3897173 -1.0958931 3
12.961017 -6.987668 -0.20254284 33
12.861011 -6.9337754 0.0025438173 32
12.762903 -6.8809061 0.20448729 64
6.407021 -3.2167864 -0.31019843 3
36.647144 -22.660885 11.535564 38
12.713953 -6.8573914 0.40500531 97
13.531712 -6.7892327 -0.44562301 11
nan nan nan 0
14.203619 -10.699839 -0.33765969 12
5.0552678 -3.5773582 -0.47266626 4
15.316091 -11.538146 -0.096878514 11
5.3283019 -3.7720733 -0.40732011 4
4.5409379 -3.6344759 -0.58612901 4
16.659136 -12.554765 0.18536459 10
5.7766395 -4.089632 -0.34316286 4
23.926418 -15.908071 1.7601539 12
4.767838 -3.8176887 -0.52909559 4
13.048956 -9.2440443 -0.55438793 11
31.413876 -20.886496 3.3370056 11
5.0875092 -4.0754356 -0.47491774 4
4.1350312 -2.9290457 -1.7895558 4
13.840247 -9.2052441 -0.37349042 10
5.5477509 -4.4445543 -0.41895226 4
nan nan nan 0
14.898914 -9.9131699 -0.15274137 13
12.450788 -9.984436 -0.72030902 8
nan nan nan 0
16.154472 -10.752694 0.10480127 17
13.336519 -10.698882 -0.53320622 17
nan nan nan 0
14.405411 -11.556759 -0.31852067 9
4.2095227 -2.8025146 -2.341306 53
15.594612 -12.515669 -0.066192545 11
nan nan nan 0
17.001228 -13.645002 0.23171686 14
12.418426 -9.3818111 -0.72956181 3
18.679518 -15.00318 0.58883733 14
13.202771 -9.974576 -0.54484415 17
4.9566522 -3.742609 -1.775282 4
14.069661 -9.9931192 -0.35772994 11
4.362586 -3.2948427 -0.65241009 4
15.164745 -10.771068 -0.12636958 11
16.403824 -11.651309 0.14372401 13
5.6887712 -3.7932942 -0.34335181 4
31.034628 -24.947672 4.5748854 39
17.893986 -12.714621 0.46288276 17
12.904691 -8.6057148 -0.56202829 12
nan nan nan 0
nan nan nan 0
5.7841849 -3.1580012 -0.45715705 3
nan nan nan 0
nan nan nan 0
5.8675566 -3.2048051 -0.37061155 4
nan nan nan 0
12.903655 -7.5481944 0.23687747 43
6.1822948 -3.377949 -0.29253542 3
5.1217952 -3.2048154 -0.48215118 4
12.998246 -7.0987573 -0.41010526 36
5.3342552 -3.3377299 -0.41444629 4
nan nan nan 0
5.4217429 -2.9652238 -1.1209099 3
14.36683 -7.3086834 -0.24984743 12
5.6972103 -3.5675619 -0.34922326 3
15.436852 -7.8561029 -0.02715363 11
6.1913548 -3.8784416 -0.27800351 4
5.8247485 -3.1867266 -0.64631093 3
16.665621 -8.4811115 0.23128772 11
13.733007 -8.6053162 -0.39237049 10
37.120586 -21.754265 8.7462711 34
5.7003956 -3.1200504 -0.54152381 1
14.78706 -9.2657528 -0.17628989 11
6.0210829 -3.045666 -1.3947937 1
16.016434 -9.9699831 0.069015399 10
5.9811544 -3.0254967 -0.7595945 4
17.42313 -10.845575 0.36117542 15
6.1957674 -3.6093316 -0.28529683 3
19.03581 -11.853992 0.70750856 14
nan nan nan 0
37.142448 -20.178148 6.6891375 32
nan nan nan 0
12.945331 -7.0376425 -0.20268072 53
12.836727 -6.9786263 0.0025438173 30
12.77834 -6.946898 0.20512344 52
6.3288903 -3.2053125 -0.30694005 4
36.60881 -22.814213 11.548506 38
12.711895 -6.9136658 0.40570772 97
13.534689 -6.8499599 -0.44650775 28
nan nan nan 0
14.213965 -10.785623 -0.33880106 23
5.067101 -3.6123524 -0.47496265 4
15.319531 -11.624793 -0.097156897 10
5.3475995 -3.813838 -0.40982479 3
4.5359645 -3.6565535 -0.58713782 4
16.655033 -12.643075 0.18580966 10
5.7867203 -4.1271753 -0.34462315 4
23.961956 -16.052599 1.7668883 12
4.766109 -3.8436964 -0.53039771 4
13.049145 -9.3127623 -0.55577689 11
31.493876 -21.098587 3.3533225 11
5.0771317 -4.0963025 -0.47528303 4
4.1056132 -2.9297736 -1.7811779 4
13.837097 -9.2729788 -0.3742784 10
5.539968 -4.4701648 -0.41954356 4
nan nan nan 0
14.922361 -10.004098 -0.15334003 12
12.450826 -10.056091 -0.72234255 8
nan nan nan 0
16.13345 -10.820158 0.10490948 17
13.326298 -10.767362 -0.53429949 12
nan nan nan 0
14.399975 -11.635258 -0.31929818 10
4.2072406 -2.8222408 -2.3455319 58
15.581931 -12.595179 -0.066325203 12
nan nan nan 0
17.000149 -13.741988 0.23235564 14
8.053896 -6.1276155 -0.47378102 3
18.69309 -15.121744 0.59092885 17
13.203659 -10.047844 -0.54632831 11
4.9512048 -3.7657094 -1.7780452 3
14.059084 -10.059627 -0.35835293 11
4.3510585 -3.310051 -0.65241009 3
15.175848 -10.858856 -0.12677799 12
16.415911 -11.746327 0.14418913 13
